ply
format ascii 1.0
comment Created by Open3D
element vertex 1216
property double x
property double y
property double z
property uchar red
property uchar green
property uchar blue
end_header
0.169803 -0.00615155 0.0798021 39 76 96
0.213288 0.242938 -0.258921 38 34 32
-0.108452 -0.298944 0.23481 185 146 122
0.0776627 -0.0321427 0.164519 202 163 138
-0.0657363 -0.291966 0.25145 214 181 174
-0.0913485 -0.300806 0.248929 214 184 177
-0.186892 0.189879 -0.457949 111 42 26
0.137064 0.276857 -0.259953 18 14 15
0.114516 0.061105 0.0613297 32 35 35
-0.049253 -0.0562611 -0.0810594 71 47 34
0.0985702 0.24269 -0.546879 124 67 50
0.0404094 -0.0389035 0.197283 38 74 93
-0.0872446 -0.010594 0.310589 182 146 120
-0.0360236 0.0458344 0.323889 191 153 129
0.12211 0.284833 -0.624274 119 68 41
-0.101156 -0.0390219 0.296849 164 131 121
0.205881 0.0992567 -0.0362707 179 144 117
-0.0312072 0.175918 0.0386576 72 42 35
-0.0809655 -0.304964 0.237822 154 117 100
0.143764 0.0611304 -0.248136 69 36 29
0.128765 -0.0986503 -0.0280473 50 37 36
-0.100217 0.104643 -0.319206 132 57 40
-0.0678805 -0.289929 0.237721 55 36 33
-0.0659967 -0.292062 0.251661 205 171 162
0.283293 0.232156 -0.528501 81 44 34
-0.0143457 0.0473832 -0.231053 66 37 28
0.142103 0.200148 -0.121475 161 168 197
-0.168818 -0.108577 0.0922292 101 91 102
-0.0790554 -0.298231 0.249025 211 181 171
-0.186546 0.145671 -0.304981 49 32 25
-0.0956991 -0.0342193 0.286955 182 142 114
0.0471405 -0.00742662 0.146234 69 40 36
-0.10855 -0.0247061 0.228989 33 79 94
0.161187 0.268799 -0.205085 80 48 43
-0.0782951 -0.304196 0.233804 37 77 92
-0.113467 -0.287038 0.247138 206 171 160
-0.192875 0.0860743 -0.264123 38 30 28
-0.130315 -0.0212394 -0.0819239 241 226 218
-0.0447813 -0.0818278 -0.0399552 35 21 23
-0.0795413 -0.304849 0.236246 201 168 145
0.0557743 0.358636 -0.77188 135 58 29
-0.0765041 -0.302282 0.237344 71 46 41
0.120404 -0.0105342 0.122499 66 46 38
0.0360974 -0.0631556 -0.0661935 50 40 40
-0.147762 -0.0386103 0.102525 77 58 51
-0.0671293 0.170243 0.0136662 207 158 130
0.0187893 0.126525 0.185125 35 75 88
-0.0888631 -0.302286 0.246473 214 184 175
-0.141388 0.258783 -0.176642 87 61 52
-0.0661868 -0.292159 0.251707 208 174 165
0.0233619 0.150195 0.124154 61 38 33
0.399662 0.355302 -0.782296 125 50 26
-0.112751 -0.28585 0.25768 245 227 223
0.107519 0.00565396 0.112422 181 166 159
-0.115884 -0.284383 0.242088 57 91 107
0.0222628 0.159105 -0.264393 213 197 191
0.0282628 -0.0428044 0.269453 57 38 36
-0.0335581 0.230851 -0.158711 176 138 113
-0.105497 -0.294976 0.248688 203 180 166
-0.115653 0.12043 -0.175427 44 39 40
0.0947847 0.0722118 -0.264839 75 45 35
-0.110905 -0.294975 0.234284 196 156 131
-0.112028 0.25972 -0.179513 99 68 55
-0.0826499 -0.29817 0.250126 208 180 174
0.0488123 -0.12504 0.1765 193 150 126
-0.0831798 -0.309241 0.232198 70 40 37
0.0450038 -0.0205005 0.163678 193 155 133
0.0015308 0.177376 0.0381196 83 49 42
0.194392 0.139046 -0.0687917 30 25 22
-0.073601 -0.29908 0.242293 36 79 93
-0.0704597 -0.296989 0.242162 62 92 113
0.0554101 0.000971934 0.130313 236 222 214
0.0535049 0.164363 0.0679191 40 77 93
-0.178809 0.111616 -0.0546951 138 110 95
-0.0901603 -0.317951 0.227035 48 33 32
0.0292035 0.207357 -0.248739 100 64 76
-0.07542 -0.296076 0.252095 239 217 210
0.31407 0.170188 -0.417617 63 31 22
0.0546916 0.162547 0.0737994 36 77 95
0.0387486 0.0796968 0.256638 212 172 151
0.0415799 0.171971 0.0456206 34 29 28
0.33146 0.234182 -0.153368 37 80 97
0.190489 0.227906 -0.310705 38 34 31
0.311608 0.221596 -0.296236 75 59 58
-0.0847994 -0.311416 0.229541 60 39 37
-0.118812 0.144693 -0.0280341 79 70 67
0.0147761 0.263186 -0.26552 235 216 206
-0.0936252 -0.29521 0.252897 211 184 176
-0.186662 0.146192 -0.302109 31 19 20
-0.0885196 -0.271869 0.258778 161 131 124
-0.130892 -0.231149 0.158191 133 111 100
-0.129686 0.132963 -0.0074109 58 41 38
-0.118754 0.00965448 -0.172125 109 57 44
0.0788829 0.00319682 -0.162189 78 41 35
0.0585271 0.186213 -0.0425531 197 165 143
-0.109504 -0.298657 0.231526 39 85 102
0.0201693 -0.0350694 0.251056 193 155 130
0.133281 0.189101 -0.100869 37 80 92
0.00922913 0.155804 0.112485 22 22 18
0.0632378 0.320499 -0.695058 135 59 36
-0.113308 -0.289268 0.239992 34 78 95
-0.194865 0.154071 -0.272216 113 56 36
-0.108593 -0.296906 0.237912 39 78 95
-0.253025 0.379333 -0.818044 134 62 32
0.168097 0.277862 -0.255036 47 89 108
0.215514 0.231203 -0.310277 74 65 60
0.0768776 0.0305465 0.096582 35 75 92
-0.113728 -0.28643 0.248223 242 223 217
0.0303947 -0.0136456 0.181675 66 41 37
0.310117 0.170782 -0.338884 113 82 69
0.0695088 0.18597 -0.0479967 206 173 149
-0.0239706 0.124185 -0.349091 22 17 12
-0.101519 -0.298302 0.249034 215 186 179
-0.0446026 0.168944 0.0644596 50 30 30
-0.0783712 -0.301779 0.241889 39 78 92
-0.0488214 0.198589 -0.471524 137 66 42
-0.0771198 -0.302817 0.237061 62 43 36
0.211647 0.080044 -0.00130398 185 144 115
-0.117219 -0.277366 0.213308 50 34 34
0.0662108 -0.0668044 0.219655 62 41 37
0.0220048 0.172405 0.0544207 35 43 44
0.139654 0.216174 -0.310588 69 42 38
-0.145977 -0.155319 0.116607 111 84 78
-0.0841328 -0.310526 0.230615 197 153 128
0.378967 0.337132 -0.740298 123 49 25
0.0455967 0.259265 -0.189553 84 56 49
-0.11618 -0.283623 0.243513 52 90 105
-0.057787 0.00267733 0.346202 241 215 207
-0.175255 -0.0491224 -0.0937114 106 51 39
-0.0839911 -0.31038 0.23045 207 168 139
-0.0474466 -0.0944257 -0.0203037 55 41 41
-0.117089 -0.053291 0.313014 61 39 39
-0.20576 0.171299 -0.201918 51 47 44
0.0316732 -0.0206447 -0.12913 74 43 34
0.0682449 -0.055943 0.20258 50 89 107
-0.287128 0.255083 -0.576267 90 41 27
-0.0849169 -0.311553 0.229542 22 21 18
-0.255219 0.268953 -0.599968 84 37 21
-0.0803092 -0.304801 0.237462 195 158 135
-0.0319758 0.113527 0.221283 46 90 105
-0.196969 0.174609 -0.205246 52 49 45
0.088283 -0.0606859 0.182754 81 41 35
-0.100848 -0.300196 0.248263 217 188 180
0.0701641 0.166717 0.0442156 32 74 84
0.154317 0.0559061 0.0527665 39 38 34
0.241448 0.249421 -0.252647 48 35 33
0.0371891 0.169018 0.0609411 36 73 89
-0.116144 -0.284137 0.239388 38 78 93
-0.0430721 -0.260993 0.204169 40 77 92
0.120066 0.183625 -0.067006 172 140 122
-0.110925 -0.2959 0.229059 84 45 32
0.0543508 -0.0627252 0.281802 74 49 47
-0.109431 -0.2969 0.235686 69 40 36
-0.0732229 0.061223 0.265303 47 37 34
-0.00856378 0.00589098 0.337733 66 43 44
-0.0800255 -0.304881 0.236935 167 126 105
0.347481 0.264039 -0.590936 85 37 26
-0.0809004 -0.304401 0.238841 60 38 33
0.421938 0.331353 -0.731812 118 47 23
0.104105 0.184985 -0.0622253 188 159 137
0.0112692 -0.180033 0.20044 178 127 104
0.0149219 0.111939 0.219867 42 91 108
-0.083072 -0.308753 0.2334 41 23 23
0.325407 0.186251 -0.296419 107 58 44
0.0245167 0.000815187 0.243486 194 153 131
-0.0844048 -0.265119 0.261138 212 180 168
0.090088 -0.0134408 0.137215 65 40 35
-0.0956471 -0.0339494 0.288095 180 139 112
0.347698 0.1973 -0.138162 192 169 172
-0.0679285 0.0510494 0.302228 193 154 131
-0.08294 -0.308468 0.233731 37 76 91
0.273449 0.22661 -0.143656 35 78 94
-0.0901368 -0.302868 0.246067 216 186 179
0.320897 0.280698 -0.620689 94 41 27
-0.113877 -0.288174 0.235692 66 43 36
0.0794164 0.0763469 -0.271471 78 50 39
0.284311 0.229979 -0.302658 75 60 60
-0.133761 -0.2239 0.140866 41 37 34
-0.103887 -0.295205 0.249915 214 185 177
0.15141 0.21177 -0.313457 95 49 37
-0.114455 -0.25806 0.223065 44 86 100
-0.00243856 0.0854969 0.272703 193 154 133
0.0306352 0.287231 -0.236491 40 32 30
0.0261335 -0.0443523 0.237899 208 170 148
-0.292658 0.376218 -0.815967 139 63 31
0.140258 0.234521 -0.268827 73 64 58
-0.131837 -0.00427523 0.195154 160 120 101
-0.211968 0.243678 -0.552361 94 38 26
0.0459954 -0.0887066 -0.0204483 72 44 45
-0.0822099 0.161951 -0.00492446 170 134 111
8.2893e-05 0.0897551 0.265546 198 158 135
-0.0732631 -0.293583 0.256054 243 221 214
-0.127287 -0.0668309 0.273706 71 48 48
0.312807 0.222371 -0.222792 60 62 58
-0.107473 0.0599994 0.108734 74 43 36
-0.114477 -0.285257 0.223185 187 146 117
0.00814632 0.00520754 0.329302 61 41 36
0.00581217 0.16389 0.0892335 48 87 109
-0.114562 -0.281426 0.222185 71 44 35
-0.0765396 -0.301755 0.239567 39 76 93
-0.103611 -0.0798036 -0.0369537 32 28 26
-0.0706266 0.172642 -0.00893337 207 172 152
0.0151411 0.131494 -0.360103 25 22 17
-0.0250172 0.0609338 0.30947 194 156 135
-0.0370312 -0.246783 0.217958 71 42 36
0.113556 0.255518 -0.184744 197 151 127
0.128211 -0.0435004 0.110616 37 27 36
-0.127616 -0.0369227 -0.0707302 112 55 41
-0.070825 -0.2966 0.245505 42 78 95
-0.0897174 -0.3017 0.247609 214 186 177
0.0220401 -0.0359145 0.264562 49 34 31
-0.077282 -0.303007 0.236746 62 43 33
-0.0751528 0.113838 0.17213 190 152 124
-0.0839651 -0.300693 0.2469 207 175 167
-0.0745345 -0.296391 0.25066 219 199 192
-0.142255 0.345284 -0.745001 142 65 29
0.0521253 -0.0684766 0.302402 98 70 69
-0.0814138 -0.306904 0.234444 42 84 99
0.264205 0.146175 -0.362852 69 33 23
-0.111802 -0.29328 0.231436 42 84 100
0.0480184 -0.051807 0.213969 43 85 102
0.087426 0.174971 -0.00759325 186 140 113
0.196733 0.0676586 -0.237054 62 35 24
-0.117354 -0.0337824 -0.106881 72 36 28
-0.0942549 -0.296059 0.2524 191 158 153
-0.156483 0.342597 -0.73875 135 56 22
-0.115519 -0.282869 0.254591 215 180 173
-0.117014 -0.280656 0.254415 190 153 128
0.11966 -0.0870424 -0.0403326 103 66 57
0.0562069 -0.0661819 0.26897 56 37 35
-0.116347 -0.224352 0.232291 89 45 36
-0.110023 -0.288965 0.257858 245 227 223
-0.0782739 -0.301536 0.242332 35 79 94
-0.0991247 0.0531131 -0.239576 102 60 45
-0.101624 0.184865 -0.449407 48 27 15
-0.155892 -0.11329 -0.0039612 94 71 79
-0.110404 -0.288535 0.257772 245 227 226
-0.112331 -0.291697 0.236333 76 48 43
0.288525 0.27133 -0.233442 130 112 107
0.0230753 -0.041073 0.248817 198 156 132
0.171994 0.226372 -0.308208 42 34 31
-0.162346 0.139379 -0.319577 92 57 43
-0.083015 -0.308478 0.23382 48 85 104
-0.159276 0.0429269 0.0445061 201 183 171
0.115182 -0.0488527 0.118762 60 49 51
0.135937 0.28049 -0.229205 81 50 46
-0.181238 0.143519 -0.333448 102 46 34
0.0932821 0.0182948 0.103192 231 214 210
0.135572 -0.00876715 0.0983356 232 214 213
0.354985 0.198018 -0.199204 70 56 55
0.337179 0.182512 -0.287693 62 52 50
-0.113043 -0.290197 0.23683 89 47 38
0.12384 0.0155217 0.101616 223 209 203
0.0703583 0.172414 0.018667 86 56 46
-0.19402 -0.0438113 -0.104722 41 31 29
-0.0584321 0.0984674 0.235399 40 87 107
-0.204951 0.199638 -0.13896 204 198 190
-0.0831652 0.182802 -0.0775668 51 30 24
0.190869 0.234152 -0.268695 235 218 209
0.153851 -0.0196488 0.0910303 48 89 109
-0.117863 -0.278991 0.256202 208 178 167
-0.15751 0.142593 -0.192504 54 40 35
0.320779 0.191313 -0.296374 102 49 38
-0.040507 0.326764 -0.708744 142 59 34
0.136596 -0.0663868 -0.0676553 107 49 39
0.0960607 0.0145535 0.106029 234 216 212
0.0250775 0.201043 -0.123308 60 42 36
0.0419698 0.112903 0.202194 51 89 110
-0.0294228 0.188885 -0.038533 200 166 142
-0.0569836 0.264428 -0.193144 63 46 38
0.0769266 0.161042 0.0622705 34 76 94
0.030589 -0.0502173 0.303334 92 72 66
-0.0800214 -0.302758 0.241281 37 79 95
-0.116229 -0.282748 0.248424 242 223 216
-0.101766 -0.298218 0.248772 214 186 177
0.0762881 -0.0326683 0.165708 202 164 140
0.000707896 0.0433558 -0.22477 77 45 36
-0.0579711 0.178808 -0.0133239 193 158 139
-0.117032 -0.280456 0.256303 67 107 124
0.1516 0.233513 -0.158601 92 66 57
-0.109471 -0.29858 0.231987 37 82 99
0.0661848 -0.0260949 0.160659 208 164 139
0.0510541 -0.0620297 0.269384 56 36 32
0.0651046 0.162214 0.0669691 38 77 95
-0.110962 -0.295342 0.231947 66 40 36
0.254019 0.36704 -0.796805 129 71 46
-0.103716 0.328196 -0.710833 144 64 30
0.12987 0.00011918 0.10804 29 28 24
0.0261586 -0.0311125 0.205391 38 78 96
0.00460233 0.192536 -0.459677 110 64 42
0.434782 0.23764 -0.546063 81 35 26
-0.0937815 -0.295237 0.25287 218 190 182
0.133406 0.0361954 0.0818008 60 87 106
0.00786029 -0.18731 0.200434 188 143 120
-0.0531124 -0.0928772 -0.022635 31 27 21
0.0152695 0.101667 0.240284 50 35 30
0.0102159 -0.0785928 0.315993 65 44 39
0.300068 0.269085 -0.228153 96 71 67
0.0151587 0.144768 0.140731 196 158 134
-0.117463 -0.28036 0.249832 241 230 228
0.130421 -0.0206969 0.10327 240 225 223
-0.0834205 -0.30955 0.231935 179 137 117
-0.101259 -0.299774 0.248016 213 184 176
0.0341423 -0.0527144 0.249403 167 129 116
-0.0516006 0.122047 0.19361 89 47 38
0.117166 -0.00561069 0.120634 70 39 33
-0.114292 -0.287105 0.221878 187 144 124
0.138479 0.0756914 0.0346746 93 73 66
0.058756 0.200383 -0.12449 67 47 47
0.0892568 0.16107 0.0515177 34 74 90
-0.0651343 -0.0885353 -0.0283127 62 59 53
-0.110431 -0.296104 0.233669 196 159 133
0.0967819 0.171297 0.00131023 84 56 51
-0.0382355 -0.027325 -0.122261 73 42 32
-0.107432 -0.0245654 -0.124109 41 38 34
0.0186602 -0.0377487 0.30485 97 77 72
-0.116123 -0.282711 0.216434 75 52 47
-0.0969296 -0.298369 0.250734 230 200 192
-0.110372 0.159362 -0.0524207 36 77 91
-0.0709077 -0.292403 0.256743 212 193 189
0.141281 0.0779901 -0.273499 64 35 25
0.280711 0.156943 -0.341211 85 37 27
0.173308 0.296604 -0.647449 118 45 20
0.169759 -0.0563382 -0.084032 107 49 39
-0.064374 -0.0836043 -0.0355911 91 72 74
-0.0803317 -0.305021 0.237027 114 72 59
0.303118 0.128067 -0.341367 104 45 27
-0.111465 0.00329084 0.186846 197 156 132
0.106354 0.210242 -0.136124 121 82 70
-0.218605 0.385922 -0.834355 107 39 23
0.167204 0.280937 -0.247623 78 57 52
-0.117807 -0.279534 0.251064 237 222 220
0.0288015 0.27851 -0.214828 72 40 37
-0.108775 -0.296365 0.238572 39 81 94
0.174199 0.0203874 0.0633208 40 42 37
0.199165 0.263701 -0.194887 97 61 51
-0.0682587 0.252836 -0.178434 100 69 56
0.211286 0.231127 -0.306087 72 61 59
0.308623 0.156947 -0.377257 78 36 26
0.0501884 0.165101 -0.412483 50 38 28
0.0334258 -0.0427233 -0.0968926 94 42 29
-0.19039 0.177735 -0.202208 51 47 45
-0.083542 -0.0136037 0.334825 174 133 111
-0.0407176 0.220541 -0.147371 194 157 130
0.161443 0.0483457 0.0567463 37 77 87
-0.0698443 -0.0509117 -0.0529571 123 76 56
-0.0851607 -0.311965 0.228144 30 35 34
-0.0831819 -0.309221 0.23234 70 40 36
0.390506 0.196787 -0.470858 72 34 25
-0.102097 -0.298846 0.24675 212 182 176
-0.0975032 0.13485 -0.185062 42 34 34
-0.0147229 0.0978764 0.254052 40 29 28
-0.150152 -0.0580748 0.132743 188 146 123
-0.101408 -0.303694 0.245817 215 182 177
0.0385583 -0.0508548 0.224751 71 45 38
0.0140136 -0.0261756 0.312768 79 52 48
0.0286284 -0.04804 0.302882 101 78 73
0.268222 0.265696 -0.192244 65 42 36
0.127546 0.367919 -0.792876 141 57 32
-0.0947536 -0.0325882 0.303453 190 149 125
-0.0963485 -0.0636117 -0.0676004 71 46 33
-0.0408845 -0.241526 0.262176 94 77 91
-0.0914335 0.0159854 0.193268 66 39 36
-0.0721324 -0.297785 0.243759 35 79 94
-0.111205 -0.294064 0.235375 64 40 37
-0.111871 -0.293554 0.227071 70 41 37
-0.130942 0.0628667 0.10097 69 41 38
-0.107804 -0.299334 0.235391 65 40 37
-0.10016 0.115308 -0.336044 128 51 38
-0.142295 0.107913 -0.169585 44 34 31
0.182873 0.375133 -0.81188 136 56 32
-0.071494 -0.297848 0.207746 52 51 46
0.00832627 0.0563256 0.304608 187 151 127
-0.0957068 -0.10146 0.00304437 57 46 43
0.0461183 0.286963 -0.250104 49 93 106
-0.0860895 -0.29966 0.249184 215 186 178
-0.0913638 -0.298399 0.251013 144 110 110
-0.187484 0.0775415 -0.00497857 87 63 61
-0.112939 -0.290007 0.239332 36 77 93
-0.0202747 0.180037 -0.250693 56 50 45
0.021675 0.21864 -0.506154 101 56 37
0.156898 0.0640564 0.0419246 69 48 44
0.264242 0.270606 -0.24498 57 39 35
-0.0826917 -0.308033 0.234148 39 79 97
0.118816 0.0402279 0.0813668 34 75 93
0.0395833 -0.0488064 0.21862 73 43 38
-0.0709418 -0.297148 0.243206 66 100 117
-0.15913 0.135051 -0.350531 121 47 38
0.21569 0.274968 -0.216056 71 40 36
0.354918 0.196857 -0.194748 49 87 100
-0.119428 0.120786 0.0251637 216 180 156
-0.0712202 0.202821 -0.124896 155 123 105
0.346568 0.209491 -0.147225 102 73 66
0.0660979 -0.0773356 0.302736 203 193 182
-0.10026 -0.0837503 -0.0297688 55 36 30
-0.0904653 0.0682116 -0.262669 100 60 49
-0.108991 -0.291825 0.2487 80 56 54
-0.0861072 -0.31295 0.229576 229 209 208
-0.109606 0.0301313 -0.2044 102 62 48
-0.0850374 0.0139238 0.230244 49 90 108
-0.0154399 -0.0778752 -0.044656 34 20 16
-0.0667623 -0.293079 0.249634 193 168 157
-0.1583 0.200079 -0.475329 124 50 28
-0.109978 -0.296646 0.234964 68 43 39
-0.0720863 0.184346 -0.0620717 50 82 103
-0.0853485 -0.312039 0.229736 24 20 17
-0.118906 -0.276227 0.209464 67 86 99
-0.083251 -0.30942 0.231438 206 158 136
0.33883 0.217211 -0.19874 144 123 117
-0.153816 -0.164517 0.0584059 93 47 32
-0.0693599 -0.295404 0.246707 66 101 120
-0.08367 -0.300014 0.247816 202 175 165
-0.0715941 0.0557714 0.284021 201 164 139
-0.030661 0.193145 -0.0651368 62 47 46
-0.177827 0.0133719 -0.172201 103 53 41
0.318563 0.177161 -0.315302 42 30 27
0.0483584 -0.0778119 -0.0393245 43 37 33
-0.164193 -0.0707801 -0.0620647 37 33 29
0.0414303 -0.0523198 0.281539 78 54 52
0.162007 0.0901586 0.000651113 199 161 134
-0.0551605 0.117931 0.200316 32 75 90
0.111029 0.183944 -0.0616553 183 154 131
-0.116175 -0.281524 0.259169 248 238 236
-0.0863209 -0.31323 0.229296 37 77 93
0.0239758 -0.0403117 0.297551 119 94 90
-0.0811496 -0.306371 0.235277 62 38 36
0.330187 0.231991 -0.214109 86 60 60
-0.109944 -0.295164 0.237468 39 76 90
-0.282066 0.355278 -0.76693 120 48 24
-0.128061 -0.033126 -0.0837799 100 49 36
-0.0755276 -0.295099 0.254244 240 215 210
0.23878 0.231615 -0.295313 75 64 60
0.0533657 -0.0682654 0.252373 39 27 25
0.0785049 0.213377 -0.142137 174 136 109
0.00690327 0.153188 0.120059 69 42 34
-0.115892 -0.28081 0.217261 191 151 128
-0.0436601 0.121646 0.198573 31 76 92
0.166392 0.233671 -0.272049 73 64 61
0.00423769 -0.0886947 -0.024481 94 54 39
-0.0958022 -0.296673 0.251906 219 189 181
0.0331289 0.0542373 0.287894 70 51 44
-0.191058 0.13986 -0.339059 35 29 25
-0.131207 -0.234914 0.161486 132 113 106
-0.0920097 -0.304397 0.244816 213 183 173
0.211624 0.0720021 0.0142106 108 87 80
0.12757 0.226228 -0.29578 71 59 59
-0.00340862 0.100585 0.247942 42 31 27
-0.115106 -0.283623 0.21978 197 157 132
0.0436734 0.113138 -0.330091 79 37 29
-0.0917434 -0.0258791 0.29623 202 159 137
-0.0845246 -0.300723 0.247021 208 178 168
0.0706964 0.279559 -0.259876 29 19 19
-0.0896717 -0.302222 0.246867 214 185 177
-0.0342778 0.0814577 -0.282267 39 29 28
-0.12404 0.244311 -0.555194 105 45 30
-0.110672 -0.0265865 0.231212 39 76 95
0.187515 0.249057 -0.262572 69 94 98
-0.078534 -0.301956 0.241654 37 77 91
0.0530923 0.200298 -0.124415 76 55 51
0.0270764 -0.0253544 0.195253 54 69 75
-0.0770116 -0.302635 0.237586 70 44 40
-0.0590193 -0.271246 0.2417 32 22 20
0.188137 0.0871987 -0.0159622 208 174 156
0.0302699 0.286119 -0.259698 57 54 50
-0.0912202 -0.295588 0.253053 213 184 176
0.0682054 0.182152 -0.0275105 195 162 138
0.252816 0.148755 -0.381214 78 41 26
-0.100319 -0.0387557 0.301069 162 128 112
-0.132857 -0.231927 0.154316 116 114 113
0.0634301 -0.010313 0.139778 70 41 35
-0.117237 -0.281387 0.245564 228 210 211
0.174738 0.234239 -0.270742 67 66 59
-0.114476 -0.287042 0.241213 52 91 110
-0.05515 0.0404806 0.325266 191 148 125
-0.174814 -0.0962424 -0.0320606 49 36 35
0.0321327 -0.179943 0.077769 95 55 39
0.0638973 -0.0703831 0.276826 61 40 39
-0.145924 0.100727 -0.177687 38 33 30
-0.0648342 -0.281849 0.235178 182 144 119
-0.127164 -0.023582 -0.108523 43 30 26
0.0195883 -0.200477 0.101248 157 111 99
-0.0899875 -0.317755 0.226949 45 30 28
0.161114 0.170357 -0.0882874 102 120 142
0.0549343 0.247383 -0.262501 71 62 59
-0.0318966 0.0609842 0.30944 193 152 133
0.191278 0.180187 -0.437704 86 43 29
-0.0697153 -0.296276 0.243486 164 161 164
-0.0296818 0.025318 0.335911 189 152 124
-0.0583367 -0.267649 0.249411 154 143 136
0.100711 -0.0110045 0.131778 68 43 38
-0.0937045 -0.296769 0.252036 164 136 132
-0.124141 -0.0498571 0.268676 74 55 57
-0.0773265 -0.30327 0.233974 38 80 92
-0.115907 -0.0720202 -0.0414877 63 34 27
0.301201 0.224425 -0.233452 47 44 41
-0.0127347 0.131805 0.179574 75 40 36
0.145958 0.0558627 -0.240213 63 34 25
-0.113359 -0.289359 0.224717 187 148 116
-0.193473 0.165445 -0.240105 40 37 33
-0.0965035 -0.296685 0.251833 144 116 112
-0.0241829 0.104303 0.241775 57 38 38
0.0214119 -0.0878687 -0.0238079 90 46 37
0.0307506 0.128493 0.175102 78 42 35
0.0455264 -0.0348422 0.185172 72 39 34
-0.0991999 -0.298126 0.250551 220 192 187
-0.0763014 -0.300169 0.243356 39 81 94
-0.000273358 0.177411 0.0381138 83 49 42
0.392795 0.294549 -0.653423 114 47 29
0.110357 -0.0175482 0.135267 118 84 69
-0.0751388 -0.3009 0.239133 32 78 91
-0.0938521 -0.321914 0.232208 102 80 71
-0.142674 -0.00333133 0.1478 49 29 23
-0.08591 -0.31277 0.229014 41 79 93
0.127321 0.162986 -0.0176241 182 137 114
0.0192292 -0.0521201 0.31546 61 40 35
-0.114712 0.28979 -0.225089 46 92 102
0.0641623 -0.0335889 0.172072 204 167 143
-0.0785863 -0.304063 0.236514 166 123 97
0.0708807 -0.0737731 0.221459 195 158 136
-0.0223954 0.224973 -0.245272 130 91 69
0.0321227 0.163585 -0.410519 18 18 13
0.306022 0.22675 -0.278314 48 94 116
-0.148027 -0.140626 0.0339178 74 39 29
-0.108224 0.123055 -0.182795 48 39 36
-0.0703297 0.29125 -0.272298 83 57 56
-0.10657 -0.0906781 -0.0127517 220 203 194
0.143177 0.194526 -0.113677 164 123 103
-0.0669478 0.142458 0.126815 25 23 19
0.0589049 -0.0234707 0.159907 195 155 133
-0.0476419 -0.0750877 -0.0509823 52 34 25
0.0716941 -0.0739145 -0.0379422 110 54 35
0.032887 -0.0461656 0.223634 73 50 46
-0.0186041 0.117868 0.213244 37 79 94
-0.134847 0.0861237 0.069757 207 161 134
-0.109677 -0.291102 0.249219 74 48 47
0.0198053 -0.164719 0.198254 68 41 34
0.273609 0.159917 -0.397994 81 41 27
-0.272332 0.300876 -0.660263 164 76 35
-0.073317 -0.299023 0.241824 38 80 95
-0.110668 -0.296279 0.230768 40 79 92
-0.0975814 -0.0361098 0.30055 179 139 117
-0.206629 0.20912 -0.162164 31 76 93
0.322898 0.249162 -0.223262 112 85 83
-0.103629 -0.296667 0.247845 205 176 164
0.0364019 -0.0195987 0.171667 197 151 129
0.087404 -0.0232764 0.150198 179 139 113
-0.112278 -0.287844 0.249965 245 224 214
0.0418939 -0.0183579 0.163631 203 167 145
-0.0776594 0.186873 -0.452097 143 63 36
-0.166599 -0.0302366 0.0759135 49 88 107
-0.123254 -0.0559107 0.284717 98 77 72
-0.070404 -0.295753 0.24747 65 102 120
0.275068 0.155188 -0.286769 69 38 36
0.106475 -0.0539593 0.125672 36 28 34
0.110875 0.154501 -0.393463 85 48 31
0.275628 0.153383 -0.315921 105 56 42
-0.112131 -0.261652 0.241989 43 90 106
-0.0651053 -0.289983 0.255977 39 77 96
-0.172317 0.381535 -0.821215 108 34 22
0.117901 0.0672743 0.0530512 40 30 30
-0.00304943 0.191317 -0.0435921 187 151 123
-0.0913971 0.134441 -0.195314 50 41 38
-0.084204 -0.311336 0.220477 46 81 95
0.00736946 -0.0203964 0.32879 63 42 37
-0.169554 0.0919259 -0.0164069 83 64 57
-0.0912087 -0.297372 0.251864 160 128 126
-0.131989 -0.226201 0.150259 40 39 34
-0.149487 0.139139 -0.0597493 106 84 74
-0.0726437 -0.298823 0.240238 32 77 94
0.114933 0.171716 -0.0173282 185 143 117
-0.0122069 0.171399 0.0637101 24 20 18
-0.0774525 -0.303161 0.236647 65 39 36
-0.141534 -0.193606 0.0977933 121 73 58
0.0427907 0.189185 -0.0497228 180 148 126
0.0659973 0.0899306 -0.292915 79 50 38
-0.0886482 0.0988958 0.0861611 72 42 40
0.17585 0.280987 -0.243349 123 99 95
-0.0134985 0.174202 0.0519491 73 38 30
-0.113247 -0.24838 0.248896 93 71 74
-0.202828 0.207883 -0.147678 238 232 220
-0.0796493 -0.304436 0.237427 194 153 123
-0.0924677 -0.0843679 -0.0295129 29 26 24
0.0732684 -0.0782738 0.286951 182 160 146
-0.147565 0.257445 -0.579541 108 51 28
0.0093805 0.180076 0.0242409 85 60 53
-0.0792809 -0.300072 0.24589 44 79 98
-0.0670485 -0.292472 0.252118 42 79 98
-0.0678786 -0.0908256 -0.0243836 58 45 42
-0.16199 0.153282 -0.393404 24 18 11
-0.214 0.0486479 -0.236654 53 27 22
-0.191474 0.200971 -0.185953 103 75 74
-0.0682907 -0.292001 0.25515 37 78 98
0.0331081 -0.180887 0.0785765 100 52 38
-0.0845446 -0.300155 0.24787 212 179 172
-0.0950367 -0.323246 0.232683 169 160 166
0.335333 0.198327 -0.25788 224 219 209
-0.144733 -0.0357389 0.143144 67 40 38
0.0621451 0.16387 0.062868 36 79 91
-0.0990374 0.0629392 -0.254599 101 60 52
0.101884 0.0121247 0.107363 195 175 169
0.00315367 0.10231 0.243292 52 34 32
-0.0916108 -0.304158 0.24485 216 183 177
-0.122138 -0.112574 0.300059 77 54 49
0.112805 0.220927 -0.30101 38 33 30
-0.083804 -0.310185 0.230253 199 156 131
0.313588 0.159389 -0.363786 86 39 26
0.068476 0.194294 -0.101033 51 53 50
0.0550421 -0.0498783 0.2037 41 80 96
-0.114662 -0.283505 0.223902 69 41 37
-0.00425517 -0.0857161 -0.0310956 111 57 45
-0.12207 -0.0560696 -0.0619637 32 27 26
-0.0950937 -0.295509 0.252634 218 189 178
-0.184314 0.173888 -0.213819 73 53 46
-0.1196 -0.0510783 0.289992 112 92 89
0.339023 0.220795 -0.199224 145 120 114
-0.0987151 0.0885644 0.0771817 68 42 36
-0.195607 0.149242 -0.282839 74 41 31
0.107203 -0.0406595 -0.0704148 110 54 35
0.274007 0.132677 -0.0699381 99 75 71
-0.0853477 -0.312503 0.223293 130 107 103
-0.135937 0.131696 -0.0106211 56 41 46
0.0933509 -0.0449698 0.171038 66 41 36
-0.133561 -0.23106 0.151446 45 32 29
-0.109989 0.0480034 0.124708 47 30 23
-0.0796725 -0.302745 0.240999 40 79 91
-0.111399 -0.294051 0.233755 209 173 143
-0.112155 -0.292574 0.228339 46 26 19
-0.103752 -0.0822107 -0.0316053 64 35 26
-0.0665386 0.187751 -0.453287 141 59 40
0.0403211 0.167523 0.0650051 37 77 90
0.0255197 -0.0284133 0.202989 32 76 88
0.0148526 0.157509 0.10677 50 74 91
-0.0330337 -0.00818202 -0.14957 74 34 26
-0.20685 0.14534 -0.381878 117 49 29
0.266612 0.319273 -0.693418 93 35 23
-0.100982 -0.300715 0.247652 217 188 180
-0.0846945 0.105062 -0.319765 97 55 43
0.0523516 -0.0379337 0.185506 71 40 36
0.0435149 -0.0541143 0.279313 73 51 48
-0.119266 0.163475 -0.183325 65 59 53
0.0440156 0.180519 -0.438192 35 32 30
-0.0803532 -0.305886 0.234992 63 43 37
0.0324825 0.0302707 0.285006 68 50 48
0.00917363 0.163134 0.0911884 87 101 111
0.259196 0.257992 -0.180327 55 38 31
-0.140337 0.144119 -0.0558446 85 64 60
-0.141863 -0.0267126 0.103935 199 167 145
0.273041 0.229123 -0.262898 117 107 106
-0.108955 0.116524 -0.187875 39 33 29
0.380157 0.20199 -0.479668 70 33 24
-0.072565 -0.295221 0.225763 187 140 114
-0.151249 0.128565 -0.0429452 72 51 50
-0.0898852 0.315602 -0.685854 164 71 35
0.0270825 0.043722 0.300922 96 81 73
-0.115697 0.151732 -0.0422906 37 79 92
-0.0733645 -0.296169 0.250099 216 183 177
-0.135707 0.115499 -0.164313 64 47 42
-0.0833091 -0.309337 0.232491 69 42 37
-0.0868721 0.0230344 0.209842 42 76 87
-0.066109 0.374844 -0.808411 109 37 24
-0.0965241 -0.0381575 0.27047 66 45 39
-0.0656114 -0.291892 0.25144 213 180 173
0.0720194 0.199238 -0.470458 77 76 74
-0.06361 -0.190367 0.287786 207 177 166
-0.125202 -0.0192123 0.219033 55 71 78
-0.0363282 0.116494 0.213297 40 80 94
0.389354 0.227481 -0.525977 76 35 24
0.14275 0.209578 -0.488078 84 43 27
-0.114094 -0.284541 0.255663 245 227 222
0.24892 0.254846 -0.176014 58 38 33
-0.090415 -0.302808 0.246275 213 184 175
0.0304144 -0.028553 -0.117648 72 36 27
-0.109364 -0.294428 0.241387 42 88 104
0.00928086 0.0907189 0.261175 209 172 147
0.0721599 0.375078 -0.808877 137 51 29
-0.113463 -0.234321 0.25719 76 54 58
0.164717 0.277025 -0.609066 117 63 45
0.0108094 0.186682 -0.0153094 191 148 127
0.0587733 -0.0697097 0.263867 47 32 29
0.0384533 0.0901226 0.243818 198 154 134
-0.0839507 -0.31058 0.227763 35 74 94
-0.10394 -0.294401 0.250887 215 187 180
-0.0344784 0.1527 0.1218 26 21 18
0.183429 0.235313 -0.268401 234 217 209
0.0306255 -0.0493698 0.241789 207 171 148
-0.112947 -0.0233075 0.226669 33 76 92
0.04505 -0.0612377 0.254735 43 30 28
-0.0719823 0.186753 -0.0781455 53 57 59
-0.01028 0.053093 -0.239511 68 36 30
-0.0807154 -0.306131 0.235102 204 164 146
-0.0692648 -0.295847 0.244684 136 136 145
-0.0758887 -0.295051 0.254524 241 216 211
0.0570794 -0.0290057 0.168814 207 165 140
0.0364204 0.125644 0.178776 61 42 30
-0.114613 -0.287044 0.238448 36 77 94
-0.114517 -0.284747 0.251203 237 223 217
-0.0738834 -0.299484 0.241429 40 80 92
-0.135257 -0.224175 0.13754 46 41 37
0.0642749 0.135255 0.140425 194 151 127
0.000439426 0.193018 -0.246889 76 62 60
-0.11592 -0.0654666 -0.0555471 101 89 89
-0.0251627 0.359249 -0.775125 117 41 23
0.0678034 0.235442 -0.260663 75 63 56
-0.176335 0.143755 -0.330139 101 51 38
-0.0330106 0.117181 -0.213989 42 26 21
0.244212 0.101617 -0.034652 218 181 159
0.32347 0.174939 -0.427558 59 30 19
-0.110934 -0.29591 0.22889 70 41 34
0.314278 0.261583 -0.189531 67 44 38
-0.119235 -0.276804 0.261009 86 101 120
-0.116466 -0.055692 0.316003 162 122 98
0.0651033 -0.0795123 0.247595 37 27 25
-0.11023 -0.296565 0.233488 200 160 140
0.0691992 0.190674 -0.0765315 18 17 13
-0.0880343 -0.315586 0.224997 50 33 30
-0.130203 0.0502811 0.119298 82 46 34
-0.121644 0.135742 -0.368916 119 47 34
-0.141836 -0.00954208 0.130078 67 41 37
-0.113469 -0.287199 0.246551 241 223 217
-0.104038 -0.29483 0.250259 214 186 177
0.0105073 0.177039 0.0382254 89 51 42
-0.0109422 0.13293 -0.240719 38 36 30
0.199138 0.378539 -0.823318 140 59 34
-0.114617 -0.284748 0.250571 242 223 217
-0.0756632 -0.301112 0.239785 39 77 96
-0.196487 0.188543 -0.186836 102 72 75
-0.11201 -0.288364 0.249258 242 223 220
-0.133967 -0.226244 0.14371 40 37 35
0.08615 -0.0218275 -0.12543 78 39 29
0.153696 0.0120329 -0.15358 101 55 43
-0.0984402 0.154568 -0.0216236 91 76 66
0.332724 0.197397 -0.26824 147 105 87
-0.0774048 -0.29808 0.248647 171 127 109
-0.072675 -0.29685 0.218454 105 81 80
-0.076747 -0.298022 0.248586 169 131 110
-0.0441374 0.367311 -0.791997 106 34 21
0.0343729 -0.0489932 0.2669 51 35 32
-0.0800514 -0.301758 0.243269 120 123 119
0.171079 0.229077 -0.302833 69 62 59
-0.110236 -0.289401 0.253542 245 227 222
0.0204852 -0.0152882 -0.13763 75 45 34
-0.0872752 0.14188 0.0239319 194 154 130
-0.0856544 -0.0739562 -0.0519276 44 27 23
-0.156805 -0.117866 0.096124 100 80 71
0.0892621 0.270598 -0.264779 45 35 30
-0.0886267 -0.0169093 0.286801 183 145 121
0.0459594 -0.0567496 0.28839 90 68 63
0.326617 0.176844 -0.111288 73 45 55
0.170909 0.0367947 -0.19491 82 36 28
0.00816881 0.0286209 -0.202745 73 46 38
0.0575621 -0.0654237 0.277618 64 43 40
-0.0869031 -0.313959 0.228858 66 58 51
0.0434352 -0.0304251 0.179418 71 43 38
-0.139902 0.141102 -0.0459318 43 27 20
-0.17928 0.0875291 -0.00877289 27 24 18
0.169964 0.110485 -0.0381757 108 92 85
-0.190346 0.121838 -0.0660516 41 92 106
0.31422 0.363648 -0.794621 142 68 37
0.346812 0.198989 -0.226243 27 33 29
0.0166866 0.124706 0.190196 39 74 90
0.160298 0.162976 -0.407953 77 39 29
-0.112199 -0.287722 0.250849 64 47 39
0.0575131 -0.0472713 0.197291 36 75 91
0.086811 0.182972 -0.0427 203 166 146
-0.129293 -0.228796 0.159801 115 88 84
0.323956 0.196985 -0.286961 212 199 190
0.215465 0.0833428 -0.00749718 184 143 119
-0.112642 -0.288546 0.245757 221 208 199
0.0357071 0.0899402 0.247108 204 165 140
-0.176345 0.144278 -0.32366 99 63 46
0.209189 0.255046 -0.258864 81 70 68
0.111599 -0.110149 -0.0120388 56 36 30
0.0166916 0.13758 -0.369658 22 18 16
0.401763 0.208843 -0.492808 77 37 26
-0.131801 -0.224797 0.149645 52 50 45
0.0487854 -0.0588131 0.287092 88 65 59
-0.127856 -0.053242 0.266124 86 70 60
-0.104133 -0.0955601 -0.00532033 100 44 32
-0.0808923 -0.304444 0.238751 63 38 34
0.113864 0.0573751 0.0656189 37 74 91
0.337362 0.22206 -0.512702 67 31 23
-0.0653659 -0.284062 0.226465 71 41 38
0.15633 0.208708 -0.31419 103 57 41
-0.0875496 -0.314715 0.228967 84 63 60
-0.0627271 0.0482161 -0.232186 36 31 27
-0.0974129 0.0884458 0.0785514 72 44 36
-0.0547134 -0.0594834 -0.0763108 71 44 37
-0.09145 -0.319159 0.231027 191 152 127
0.27468 0.15206 -0.326482 30 25 22
-0.198137 0.180569 -0.441954 113 41 26
-0.0979195 -0.29845 0.250552 216 187 178
-0.104355 -0.0152273 0.216832 41 76 89
-0.113397 0.0279672 0.151057 48 90 106
0.0950451 0.275748 -0.607246 149 74 40
-0.0794485 -0.303635 0.238937 65 39 33
0.0514916 -0.0788798 0.311572 236 216 207
-0.056118 -0.0563725 -0.0809121 76 45 35
0.310861 0.147829 -0.33365 81 31 20
0.00631914 0.121979 0.200122 36 79 94
-0.0711607 -0.29741 0.242676 61 101 110
-0.0794779 -0.302244 0.24186 36 78 93
-0.0303513 0.169303 0.069703 21 19 15
-0.103226 0.0531664 -0.239603 103 61 44
-0.0944427 0.300875 -0.266167 63 39 35
-0.103218 -0.0267737 0.232827 39 78 96
0.0704478 -0.0877591 0.294582 240 219 211
0.0470763 -0.0629891 0.240889 175 137 117
-0.0167279 0.0489364 0.31925 201 161 141
0.0171045 0.198411 -0.107579 78 55 54
0.137332 0.0224835 0.0921904 222 204 202
-0.0826442 -0.308234 0.233707 36 78 93
-0.050931 0.176765 0.011207 201 155 131
0.22319 0.236934 -0.259241 126 101 93
-0.139658 0.0592046 0.0924608 182 138 113
0.0426184 -0.0321275 0.182869 72 38 37
0.310004 0.161202 -0.365652 74 34 26
-0.106283 -0.293361 0.250354 39 78 98
0.0381013 -0.0517847 0.227792 152 123 109
-0.180199 0.079955 0.00483259 34 75 90
-0.110917 0.0960477 0.0643686 186 137 111
-0.066071 -0.291808 0.252545 40 80 97
0.0479792 -0.162807 0.0569054 84 48 38
0.0109794 -0.183146 0.197413 192 143 116
-0.0895872 -0.317319 0.226468 48 42 39
-0.175726 0.171012 -0.224493 41 32 30
-0.0138129 0.269564 -0.20134 66 45 38
-0.11198 -0.292028 0.237677 38 75 91
0.317656 0.214278 -0.233176 57 49 44
-0.120973 -0.274478 0.266258 74 90 106
-0.0168536 0.0874815 0.271538 187 145 122
-0.0684168 -0.288428 0.228983 85 52 47
0.0388747 0.150574 0.117232 64 38 36
-0.0418465 -0.216892 0.274822 81 92 104
-0.124782 -0.0472087 0.262038 82 64 61
0.120968 -0.00676922 0.11949 73 44 36
-0.0816908 -0.296908 0.251625 216 185 179
-0.0755411 0.27628 -0.206306 77 45 40
-0.108914 -0.290587 0.252813 244 227 220
-0.124928 -0.0231889 0.224805 37 76 88
0.00026614 0.0375033 0.32097 185 143 124
-0.0387135 0.298094 -0.252019 33 81 96
0.440977 0.271491 -0.611917 115 60 49
-0.128283 0.0052409 0.182784 181 145 119
-0.173584 0.0730997 0.0163262 125 130 135
0.330351 0.254572 -0.180711 75 41 39
-0.205282 0.348234 -0.749348 116 45 27
0.242979 0.251814 -0.171868 59 35 34
-0.0906922 -0.1013 0.00393705 182 176 171
0.0977858 0.246372 -0.265532 67 63 51
-0.185787 0.142163 -0.34086 33 27 23
-0.156681 0.0585623 0.0360238 205 187 175
0.0770295 0.181243 -0.0289046 180 147 122
0.0746965 -0.0698143 -0.0440146 58 47 46
-0.100909 -0.306257 0.245206 213 185 176
-0.111445 -0.0899552 -0.0113437 42 32 29
0.0587782 0.188007 -0.28944 56 38 28
-0.0778279 0.0419925 0.265387 46 34 33
0.0376257 -0.0551787 0.239836 194 160 135
-0.054364 0.125839 0.183384 68 43 38
0.0436536 -0.0365093 0.189655 78 44 34
-0.00478486 0.364371 -0.785194 120 43 21
0.118712 0.172175 -0.0230934 202 173 150
-0.0801274 -0.302979 0.240931 38 80 95
0.0351558 0.0839991 0.255829 200 160 144
-0.0816158 -0.30572 0.237076 190 156 126
0.0607883 -0.0063222 0.135532 47 35 32
-0.10965 -0.295037 0.238657 39 78 96
-0.100528 0.147556 -0.181441 54 47 43
0.0252411 0.0989949 0.240295 85 60 48
-0.0834543 -0.309184 0.233227 82 42 34
0.0398239 0.199821 -0.122323 54 36 31
0.0841139 -0.0321079 0.162213 199 154 132
-0.0789661 -0.304528 0.235842 204 168 147
-0.0796684 -0.305111 0.235763 187 151 129
-0.158774 -0.122694 0.109288 149 109 91
-0.0954727 -0.29561 0.252546 217 189 179
0.0361867 0.109466 0.213555 43 88 110
0.0721959 0.249966 -0.264448 57 50 44
-0.0435106 -0.254436 0.221607 82 43 32
0.180124 -0.022932 -0.12472 34 23 16
-0.0829249 -0.308707 0.233233 46 32 23
-0.0206313 0.0987327 0.252489 34 26 23
-0.0615403 0.0947636 0.238302 46 89 105
-0.152289 -0.0561587 0.113202 204 168 142
-0.0838785 -0.31016 0.231249 184 137 115
-0.131179 0.0665382 0.0954759 70 42 37
0.0213729 0.17711 0.0345634 92 59 51
0.0830474 0.284881 -0.246149 38 34 31
0.0625452 -0.115785 0.158935 75 47 40
-0.0739285 -0.298147 0.245614 36 80 92
-0.0761227 -0.290826 0.258023 209 177 173
-0.0798871 -0.305897 0.224081 84 62 59
0.178527 0.231053 -0.15295 63 43 38
-0.025684 0.229902 -0.158157 186 148 120
-0.19528 0.142592 -0.304018 58 34 25
-0.256907 0.235923 -0.539748 78 36 22
-0.157099 0.0819726 0.018532 44 42 43
-0.116984 -0.2803 0.261775 250 242 240
0.316979 0.216495 -0.250077 46 59 64
-0.116007 -0.218588 0.254398 70 52 45
-0.144464 -0.1696 0.0693566 121 70 49
-0.106472 -0.0427989 0.260516 49 35 34
-0.0800095 -0.304249 0.238265 69 44 37
-0.133863 -0.0287058 0.224554 38 75 88
-0.00016584 0.196507 -0.0802751 57 78 93
-0.03225 0.128882 -0.220967 64 55 51
0.230655 0.278326 -0.223228 75 48 41
-0.127126 0.0972107 -0.17275 38 33 29
0.0184075 0.280921 -0.218701 77 48 43
-0.0634556 -0.0775608 -0.0446346 30 19 15
-0.278725 0.351792 -0.759404 117 47 25
0.224905 0.279606 -0.228651 77 48 44
-0.0932426 -0.0817778 -0.0352179 51 50 49
0.290734 0.184119 -0.442976 70 32 24
-0.101467 -0.305919 0.245034 214 183 179
-0.110718 -0.024865 0.228947 33 78 93
0.0834753 -0.0463251 0.179392 69 40 33
-0.0816035 -0.216594 0.278913 208 180 168
0.295936 0.160492 -0.370194 64 35 26
0.0903149 0.192477 -0.0944633 38 94 108
0.0620891 0.191765 -0.0808301 21 20 16
-0.10614 -0.291312 0.254262 216 187 184
0.132487 0.150011 -0.0213328 202 156 131
-0.117943 -0.279205 0.251708 243 223 217
0.455393 0.2528 -0.575389 88 36 27
0.00203237 0.188642 -0.263358 55 46 44
0.362891 0.148855 -0.38785 100 49 33
0.0954233 -0.0264572 0.151536 189 152 130
0.140293 0.107738 -0.00881534 196 155 128
-0.0902625 -0.303987 0.244199 212 179 169
-0.189011 0.169853 -0.226141 42 34 31
-0.0668483 0.0759373 0.261447 46 33 29
-0.0963069 0.0168241 0.177129 211 175 149
0.118258 -0.0332455 -0.0760568 104 51 36
-0.0714521 -0.296761 0.246069 39 77 94
0.136082 0.194892 -0.462712 90 40 27
-0.0758782 0.0346912 0.307599 179 134 114
-0.132852 0.0559357 0.109797 74 41 39
0.0325869 0.0803025 0.263124 208 171 145
0.289068 0.228951 -0.276999 50 94 114
-0.178125 -0.0142017 -0.136387 39 31 28
0.0652076 -0.0408888 0.182093 70 41 35
0.276572 0.269939 -0.240122 91 66 65
0.332295 0.183479 -0.291924 116 62 42
-0.00542013 0.0564486 0.309931 196 159 134
-0.100503 -0.0391385 0.286181 171 137 116
0.105376 0.195286 -0.312368 122 76 67
-0.204022 0.141587 -0.280142 23 20 19
-0.137619 -0.222571 0.130939 170 148 143
0.00483467 0.193491 -0.0578739 116 90 83
-0.0900614 -0.300991 0.248574 216 186 176
0.264404 0.238992 -0.346942 108 62 44
0.307412 0.204579 -0.306886 112 57 40
0.155643 0.251642 -0.561294 107 57 42
0.104712 0.283077 -0.253542 50 91 107
-0.071369 0.141733 0.116935 46 89 104
0.0431834 -0.0921417 0.313088 36 79 100
-0.0580538 0.278778 -0.212313 77 47 41
0.0510076 0.0779343 -0.274875 83 47 37
0.0388908 0.0286495 -0.20147 89 56 45
0.281937 0.229651 -0.331571 108 58 43
0.0195533 -0.03137 -0.114235 75 49 38
-0.203235 0.252338 -0.56841 86 38 25
0.320444 0.219291 -0.218293 70 59 62
0.109324 0.154622 0.0350827 37 71 88
-0.0816827 -0.306686 0.235366 67 39 36
-0.18835 0.102705 -0.0456415 190 152 125
-0.0654941 -0.0916807 -0.023495 58 48 44
-0.0679706 0.295695 -0.648433 99 41 25
-0.0911187 -0.300837 0.248866 164 134 126
-0.0915187 -0.104581 0.00770725 34 23 19
-0.0868454 -0.302304 0.245447 205 175 167
-0.0518397 0.134474 0.164162 155 114 91
-0.0875487 -0.302441 0.245513 211 178 171
-0.103199 -0.103517 0.00620295 44 33 31
-0.117279 -0.280971 0.24788 243 227 225
-0.0702756 -0.295725 0.247345 33 80 94
0.10535 0.138141 -0.367158 83 45 30
-0.0894913 -0.317211 0.226398 47 40 38
-0.111397 -0.295333 0.225838 205 166 139
-0.00459338 -0.0486828 -0.0908001 68 36 26
0.0343593 -0.0408928 0.209059 45 91 107
0.0720593 0.162096 0.0618566 37 79 95
-0.170162 0.0867767 0.000689135 33 78 93
-0.225412 0.145308 -0.386215 118 52 33
0.104851 -0.118749 -0.00096879 31 18 19
0.0563388 -0.1105 0.185991 69 42 39
-0.0544423 0.141743 0.142868 190 152 127
0.152915 0.23639 -0.534274 80 35 21
0.0303832 -0.0446137 0.270389 54 41 35
0.0195389 -0.0803819 -0.0379596 132 103 87
0.04308 0.275529 -0.264192 63 37 36
0.0722962 0.212196 -0.141229 175 132 108
-0.0708653 -0.296292 0.246558 40 78 92
-0.0622791 0.220828 -0.236074 56 51 44
-0.092117 0.319952 -0.694381 151 64 29
-0.108046 -0.291222 0.252361 246 229 222
0.315262 0.161068 -0.360864 74 36 26
0.162131 0.231048 -0.280306 68 56 51
0.223852 0.317122 -0.687964 93 37 23
0.0021452 0.19726 -0.238656 183 158 149
-0.098433 -0.0396214 0.272296 64 42 39
0.0188213 -0.0170105 0.296872 111 86 82
-0.154877 0.322485 -0.698051 144 56 25
-0.0796421 -0.305151 0.235552 203 162 140
-0.104358 -0.103337 0.00610382 117 98 95
0.00883591 0.0533691 0.306831 191 153 129
0.247295 0.139546 -0.363865 67 35 25
-0.0841382 -0.310596 0.23004 72 44 41
0.0795652 0.0475719 0.086695 37 76 95
-0.0894898 -0.303984 0.244038 208 179 170
-0.0411755 0.154011 0.116263 41 86 100
0.167122 0.0643922 0.0368316 81 63 54
0.297224 0.225999 -0.256986 41 36 32
-0.189205 0.170881 -0.221627 36 22 25
0.0334175 0.0958239 -0.303388 80 41 33
-0.077928 -0.302471 0.239782 41 78 96
-0.23291 0.092474 -0.303639 103 42 27
0.0132105 -0.034798 0.315167 67 47 41
-0.0590945 -0.0781248 -0.0447299 29 20 18
-0.172853 0.151701 -0.275685 152 109 93
-0.142977 -0.0220145 0.149649 92 50 37
0.050813 -0.0592576 0.22445 126 89 76
-0.0235462 0.0759187 0.28941 190 153 132
-0.117174 -0.281528 0.245399 217 199 199
-0.0785503 -0.302425 0.240625 36 77 95
-0.198482 0.164941 -0.231047 41 35 32
0.130862 -0.0389391 0.107906 206 193 189
0.0522696 0.17774 0.00909961 80 52 47
0.203204 0.0807714 -0.265114 61 34 23
0.0935894 -0.0779342 0.136512 26 23 20
0.0518808 0.123366 0.173917 84 45 36
0.0600207 -0.0191976 0.153338 191 149 124
-0.00666245 0.290904 -0.266834 61 34 34
-0.0696436 -0.291883 0.256787 180 156 159
-0.199298 0.107054 -0.308552 36 29 24
-0.0874327 0.235078 -0.538455 113 48 29
-0.125913 0.12253 0.0192384 194 160 134
-0.116041 -0.282132 0.25449 206 177 168
0.0481303 0.182129 -0.011153 198 158 125
0.0547215 0.270211 -0.264586 40 36 32
-0.105979 0.0344846 0.143669 40 77 92
-0.0831095 -0.31006 0.219883 108 96 88
0.169647 0.268806 -0.593359 107 55 32
-0.0770809 -0.301582 0.240871 40 78 96
-0.283914 0.310019 -0.677825 131 51 24
-0.105575 -0.0432676 0.277309 76 57 53
-0.150813 -0.184333 0.0827569 102 59 39
0.314183 0.183824 -0.113646 58 83 95
0.0355514 0.197045 -0.108401 65 44 41
-0.0398074 0.228584 -0.244731 77 59 49
-0.0832079 -0.309482 0.230437 199 154 128
-0.112702 -0.289701 0.241893 42 87 110
0.264228 0.362936 -0.788069 140 81 54
0.0246646 0.011069 -0.176287 81 52 40
-0.121894 0.0724083 0.0898141 71 43 37
0.182142 0.0582063 0.0342048 92 73 67
0.0307982 0.158564 0.0994205 201 194 186
0.0219936 0.0215266 0.310532 118 96 92
-0.0782572 -0.303896 0.236156 67 41 38
0.141502 0.205313 -0.314031 77 45 34
-0.10879 0.153176 -0.0346283 85 75 69
0.0218619 -0.0325246 0.221344 55 82 97
-0.0308227 0.178479 0.0249142 79 55 46
-0.0976625 0.0681074 0.103418 71 44 38
-0.100705 -0.303861 0.246765 215 182 177
0.247213 0.103517 -0.0372983 189 149 127
0.0422432 -0.0572919 0.233976 189 153 128
-0.0691146 -0.291608 0.256936 87 78 92
-0.25712 0.312459 -0.681278 134 52 22
0.158821 0.115423 -0.0370451 177 138 116
-0.118496 -0.278074 0.263429 250 239 238
-0.0941987 -0.322331 0.231566 95 62 57
-0.142598 0.124255 -0.0024711 101 92 89
0.0657003 -0.0435499 0.185762 78 42 35
-0.145918 -0.0346289 0.101161 77 55 47
-0.0322075 -0.0890623 -0.0283558 149 110 94
0.0946024 0.0228717 -0.190804 80 43 33
-0.091135 -0.318812 0.230731 180 139 115
-0.14357 -0.019316 0.0930805 183 149 127
0.0228461 -0.00892394 0.275425 61 40 39
-0.106087 0.04968 0.123392 47 29 23
-0.119825 -0.240101 0.209452 67 40 36
0.419077 0.229505 -0.530774 78 33 26
0.034768 0.0382081 -0.215792 86 51 41
-0.0758751 0.187692 -0.0929469 88 70 65
0.0604352 -0.0685872 0.229508 187 146 125
-0.089682 -0.298045 0.251452 242 225 218
-0.0910464 -0.296799 0.252338 155 127 122
-0.0309287 0.0747441 0.29062 200 163 138
0.255398 0.232235 -0.304279 67 54 51
0.0630464 -0.0731876 0.233974 201 160 135
-0.0809496 -0.304497 0.238705 60 40 34
-0.0115731 0.121226 0.205085 32 78 94
0.316846 0.225577 -0.142437 56 49 48
-0.0105444 0.151999 0.125465 65 39 37
-0.100367 -0.00229718 0.19937 70 39 37
0.0335745 -0.019351 0.175925 176 128 101
-0.0887637 -0.301125 0.248112 215 185 178
0.237112 0.200501 -0.118707 195 159 127
-0.135251 -0.218716 0.130524 141 97 79
-0.00264298 0.192478 -0.241645 71 63 65
-0.115437 -0.284641 0.244836 210 194 187
0.0677426 -0.062932 0.212769 66 38 34
-0.115678 -0.283418 0.249707 242 223 217
-0.0531232 -0.278325 0.187353 243 230 224
0.32145 0.265332 -0.205576 72 41 39
0.118728 -0.0154064 0.126996 71 41 37
-0.0565805 -0.264579 0.250727 178 158 150
-0.0922485 -0.320156 0.230315 40 73 87
-0.0796856 -0.302662 0.241186 40 77 95
0.0501081 -0.0362156 0.18418 72 40 35
0.445708 0.224134 -0.52147 74 36 25
0.0936442 0.123289 0.082098 232 212 212
0.335483 0.205684 -0.214518 50 32 32
0.296674 0.270381 -0.229234 98 74 69
-0.113309 -0.289565 0.236479 77 48 46
0.0917334 0.283787 -0.251992 44 89 103
0.0418716 -0.0889439 -0.0205788 107 82 78
-0.0696975 -0.0283722 -0.120901 74 40 32
0.235421 0.0369962 -0.209972 92 41 27
-0.158271 0.238385 -0.543046 111 46 27
-0.0949967 -0.297295 0.251607 220 187 178
-0.0142132 0.0597783 0.309188 184 141 119
0.0337923 0.203616 -0.273035 71 61 57
-0.109711 -0.295118 0.238263 38 76 94
0.0454137 0.00271791 0.14338 66 40 34
-0.0794915 0.184861 -0.0823813 49 39 33
-0.113263 -0.2865 0.250467 241 222 216
0.00983975 0.190776 -0.041436 198 163 141
-0.114905 -0.284684 0.249004 242 223 217
0.0586837 0.148385 0.112788 65 37 34
-0.013057 0.22161 -0.24446 137 96 75
-0.0656698 0.295992 -0.271899 77 53 49
-0.117443 -0.276447 0.212693 35 27 25
0.126473 -0.0169517 0.109555 30 16 25
0.348879 0.203363 -0.144618 177 157 159
-0.157578 0.102966 -0.0142455 33 76 82
0.156327 0.169576 -0.0820232 34 24 22
-0.103763 0.144437 -0.0107039 94 74 68
-0.140107 0.101834 -0.171335 41 32 30
-0.189075 0.170187 -0.224631 49 43 39
0.184238 0.231683 -0.276519 72 61 59
-0.0687692 -0.295153 0.24637 159 156 164
0.106358 0.00382528 0.114342 52 37 41
-0.0213436 0.159361 0.104508 47 90 111
0.203884 0.231553 -0.272048 238 223 210
-0.0747375 -0.299001 0.244391 37 79 95
0.142041 0.0892919 -0.290648 66 37 26
0.316428 0.267249 -0.209139 69 45 36
0.145502 -0.000949801 -0.121308 63 51 47
-0.0811964 -0.30514 0.237722 69 42 38
0.0224884 0.197206 -0.0993493 98 49 28
0.0974519 0.156074 0.0572021 40 76 95
0.0380614 -0.0539746 0.23387 191 156 134
-0.169 0.167948 -0.211095 73 53 40
-0.082148 -0.299701 0.247739 216 187 176
-0.101067 -0.0567578 -0.0773624 80 50 41
0.421378 0.327684 -0.724097 114 47 23
-0.0930216 -0.320989 0.231388 50 38 34
0.266064 0.278142 -0.236703 101 78 78
-0.0379598 0.15235 0.121871 27 24 19
-0.089853 -0.303518 0.24482 211 181 169
-0.082983 -0.309167 0.23101 181 139 114
-0.174119 -0.0905823 0.0740135 184 143 125
-0.123974 -0.093859 0.304389 66 47 41
0.000778574 0.352098 -0.759781 122 44 23
0.471542 0.345029 -0.766942 127 51 22
0.0643093 -0.0728633 0.297247 68 46 41
0.027932 -0.0693957 0.315467 68 43 39
0.0895426 -0.0338125 0.162183 201 162 136
0.000858443 -0.00349623 0.335871 69 45 45
-0.110896 -0.0509096 0.315514 178 134 110
-0.0606886 0.242709 -0.552935 130 52 24
0.0115681 0.1818 0.0144459 79 52 44
-0.0754824 -0.294589 0.255272 238 217 211
0.169998 0.0409366 0.0542557 43 42 38
-0.0933857 -0.295206 0.252925 206 180 172
-0.0829139 -0.308451 0.233724 36 74 90
0.291496 0.282392 -0.623036 89 38 28
0.0385114 -0.0600274 0.305833 86 58 53
-0.114615 -0.283688 0.222869 72 45 41
0.164507 0.28081 -0.236169 97 76 68
-0.00162733 0.108381 0.232513 73 48 40
0.0220893 -0.191162 0.0912485 179 156 153
-0.0948163 -0.29526 0.252776 218 187 180
-0.0226792 0.121924 0.203352 37 77 95
0.0104567 -0.211194 0.114191 128 73 54
-0.176607 0.145993 -0.305103 47 31 25
0.0763961 -0.0459894 0.183184 76 41 34
-0.116005 -0.00177106 0.194366 158 119 98
-0.0789265 -0.301233 0.243466 38 81 98
-0.0814725 -0.306923 0.234521 64 40 36
-0.058665 -0.0909084 -0.0254168 24 15 16
-0.0781303 -0.296908 0.250918 240 215 210
-0.0701352 0.186311 -0.0705817 42 78 90
0.184838 0.129283 -0.0604681 29 26 21
0.14385 0.0400344 0.0745925 36 77 94
0.0644834 0.224445 -0.515888 124 70 43
0.0105167 0.193179 -0.266987 59 50 48
0.296916 0.265365 -0.232201 132 109 104
-0.0845285 -0.299366 0.249059 211 180 172
-0.085861 -0.299744 0.248992 213 183 175
-0.0786907 -0.296784 0.251241 240 215 210
-0.110449 -0.0927704 -0.0076451 106 56 44
-0.0371558 -0.0880931 -0.0301231 149 113 98
-0.111238 -0.295683 0.226317 182 140 115
0.0615056 -0.0713486 0.297702 80 57 53
0.0178946 0.111305 0.219933 40 91 107
-0.0691021 -0.0476076 -0.0553442 128 75 67
0.100451 0.185059 -0.0604021 184 155 132
-0.131802 0.0372528 0.136265 48 62 60
-0.100207 -0.0383972 0.292755 148 112 98
0.153049 0.12724 -0.0464153 89 70 67
-0.0689557 -0.295304 0.246241 93 101 115
-0.112964 -0.289456 0.24143 44 88 108
